BEGIN_35
22.8338774 -5.8846850 6.5117248
22.8799689 -5.9532097 6.4561523
22.9307712 -6.0239743 6.4074482
22.9866914 -6.0952585 6.3654962
23.0360970 -6.1649706 6.3145580
23.0903508 -6.2364158 6.2713975
23.1193550 -6.3191545 6.2267385
23.1410434 -6.4009152 6.1737888
23.1566447 -6.4818034 6.1176144
23.1742267 -6.5616937 6.0604645
23.1763849 -6.6416614 6.0013254
23.1758136 -6.7185008 5.9375813
23.1764128 -6.7954655 5.8740454
23.1774685 -6.8725618 5.8106142
23.1785243 -6.9496581 5.7471830
23.1740530 -7.0255129 5.6827518
23.1704109 -7.1103205 5.6302676
23.1632620 -7.1951390 5.5782570
23.1535455 -7.2799175 5.5264257
23.1439724 -7.3646282 5.4745596
23.1294034 -7.4490720 5.4233203
23.1138129 -7.5457318 5.4042804
23.0994966 -7.6427105 5.3853816
23.0778033 -7.7383041 5.3675637
23.0491302 -7.8323002 5.3508115
23.0266971 -7.9277798 5.3332544
22.9913162 -8.0209986 5.3295542
22.9675526 -8.1175852 5.3228980
22.9428576 -8.2132396 5.3163602
22.9154517 -8.3089398 5.3100233
22.8875997 -8.4045609 5.3038996
22.8575056 -8.4996166 5.3081625
22.8228700 -8.5931069 5.3134919
22.7832002 -8.6835441 5.3195472
22.7285857 -8.7665213 5.3288683
22.6878064 -8.8565550 5.3357632
22.6519441 -8.9404292 5.3730335
22.6049548 -9.0191300 5.4124494
22.5672698 -9.1038528 5.4494540
22.5281659 -9.1877581 5.4868153
22.4875217 -9.2707633 5.5245850
22.4450058 -9.3482588 5.5708044
22.4017862 -9.4245917 5.6177969
22.3484771 -9.4941578 5.6655094
22.2951550 -9.5636328 5.7133285
22.2384696 -9.6303565 5.7613057
22.1781157 -9.6885631 5.8155044
22.1211729 -9.7492507 5.8705014
22.0635557 -9.8094368 5.9249358
22.0047081 -9.8681797 5.9800319
21.9371399 -9.9199878 6.0320381
21.8782124 -9.9599772 6.1020040
21.8206557 -10.0014002 6.1722877
21.7604828 -10.0399259 6.2420200
21.7005409 -10.0787300 6.3117977
21.6414179 -10.1185591 6.3816965
21.5746237 -10.1606031 6.4428064
21.5062326 -10.2005120 6.5036008
21.4384136 -10.2412691 6.5644934
21.3744170 -10.2853246 6.6263609
21.3023550 -10.3207313 6.6854741
21.2356932 -10.3539016 6.7519818
21.1677085 -10.3855170 6.8177160
21.0940707 -10.4115132 6.8799265
21.0185345 -10.4341082 6.9408019
20.9381874 -10.4480537 6.9983264
20.8631459 -10.4647001 7.0620217
20.7840483 -10.4728704 7.1201717
20.7076330 -10.4869911 7.1825848
20.6302940 -10.4982133 7.2444528
20.5530552 -10.5105862 7.3064975
20.4737975 -10.5134051 7.3670327
20.3944271 -10.5025157 7.4257340
20.3147111 -10.5032508 7.4855500
20.2349011 -10.5027488 7.5452553
20.1550799 -10.5030915 7.6051840
20.0756382 -10.5009048 7.6656211
19.9972958 -10.5060516 7.7269636
19.9196267 -10.5159353 7.7889166
19.8405131 -10.5177249 7.8497246
19.7622222 -10.5200536 7.9100180
19.6832102 -10.5189461 7.9709611
19.6018805 -10.4938549 8.0222697
19.5213175 -10.4609681 8.0695401
19.4430254 -10.4467050 8.1289510
19.3640631 -10.4310345 8.1861983
19.2850277 -10.4129061 8.2427777
19.2002401 -10.3735492 8.2762858
19.1117520 -10.3293268 8.2851823
19.0238921 -10.2848487 8.2961844
18.9341371 -10.2453066 8.3143955
18.8428782 -10.2107656 8.3310768
18.7520058 -10.1769781 8.3475566
18.6618548 -10.1415432 8.3704213
18.5712045 -10.1103796 8.3961116
18.4811522 -10.0737173 8.4168636
18.3910779 -10.0330354 8.4309959
18.3009797 -9.9923193 8.4448877
18.2117281 -9.9488259 8.4551133
18.1247548 -9.9001236 8.4607680
18.0383972 -9.8502259 8.4652984
17.9530448 -9.8002322 8.4778101
17.8817890 -9.7336416 8.4713318
17.8070023 -9.6683155 8.4683137
17.7260404 -9.6104313 8.4741314
17.6461362 -9.5508378 8.4777017
17.5650617 -9.4941790 8.4904513
17.4889304 -9.4316245 8.4979782
17.4216243 -9.3604058 8.4980315
17.3437906 -9.2986627 8.5066421
17.2655645 -9.2372756 8.5155574
17.1889620 -9.1747539 8.5292981
17.1134613 -9.1107970 8.5424811
17.0338400 -9.0556420 8.5607629
16.9632241 -8.9854569 8.5680096
16.8898941 -8.9187997 8.5801748
16.8176569 -8.8536763 8.6023420
16.7502389 -8.7883674 8.6322396
16.6917105 -8.7076140 8.6363004
16.6380538 -8.6236093 8.6306558
16.5921932 -8.5383081 8.6119696
16.5535839 -8.4477797 8.5989253
16.5237924 -8.3538512 8.5853868
16.4743433 -8.2671472 8.5877195
16.4256018 -8.1800370 8.5898549
16.3642121 -8.1017547 8.5961747
16.3007654 -8.0248156 8.6009716
16.2386158 -7.9468696 8.6053105
16.1817570 -7.8648601 8.6084689
16.1310642 -7.7791565 8.6099669
16.0872102 -7.6894627 8.6094672
16.0398220 -7.6022966 8.6018895
15.9852230 -7.5192230 8.5995896
15.9265950 -7.4384073 8.5998170
15.8842772 -7.3492599 8.5901929
15.8514366 -7.2569476 8.5713423
15.8178506 -7.1665885 8.5457508
15.7831655 -7.0767482 8.5201979
15.7445208 -6.9888868 8.4942691
15.7106862 -6.9010106 8.4620790
15.6638254 -6.8180441 8.4468593
15.6429652 -6.7241595 8.4704835
15.6245460 -6.6265655 8.4806378
15.6067968 -6.5286160 8.4859662
15.5885550 -6.4309683 8.4953272
15.5709284 -6.3332912 8.5002789
15.5658807 -6.2337738 8.4974511
15.5610790 -6.1341798 8.4924815
15.5559032 -6.0347344 8.4855969
15.5490572 -5.9375874 8.4662278
15.5426672 -5.8401559 8.4465333
15.5678709 -5.7451391 8.4350286
15.5963641 -5.6527153 8.4106090
15.6250952 -5.5586454 8.3935530
15.6489544 -5.4627162 8.4045884
15.6747129 -5.3671924 8.3971082
15.7266050 -5.2833530 8.4048930
15.7777481 -5.2002799 8.4261467
15.8265772 -5.1167286 8.4506183
15.8749676 -5.0331004 8.4757813
15.9203164 -4.9489221 8.5038864
15.9701235 -4.8768619 8.5515300
16.0338783 -4.8067441 8.5744741
16.0977088 -4.7398055 8.6115518
16.1619162 -4.6695475 8.6414472
16.2264299 -4.5964039 8.6608865
16.3103713 -4.5425708 8.6590197
16.3942781 -4.4887339 8.6630627
16.4753297 -4.4323658 8.6481717
16.5552832 -4.3759996 8.6292090
16.6343191 -4.3195490 8.6064781
16.7219376 -4.2777136 8.5832129
16.8098606 -4.2360949 8.5607729
16.8881342 -4.1903726 8.5209401
16.9572205 -4.1393610 8.4700968
17.0121430 -4.0812983 8.4109519
17.0769879 -4.0371055 8.3492262
17.1559281 -4.0071961 8.2973598
17.2507095 -3.9890919 8.2793569
17.3487774 -3.9721240 8.2724497
17.4462613 -3.9517872 8.2752571
17.5431800 -3.9352559 8.2924161
17.6399558 -3.9185592 8.3102893
17.7377256 -3.9036087 8.3237995
17.8354675 -3.8975393 8.3409182
17.9301648 -3.8809591 8.3285130
18.0261982 -3.8728085 8.3026238
18.1214634 -3.8634418 8.2747495
18.2166750 -3.8576650 8.2455507
18.3138132 -3.8529093 8.2231759
18.4126992 -3.8457407 8.2159170
18.5121829 -3.8408554 8.2199319
18.6119202 -3.8384407 8.2160422
18.7109879 -3.8406453 8.2048827
18.8098345 -3.8443760 8.1913217
18.9052920 -3.8552310 8.1647646
19.0006237 -3.8774184 8.1466039
19.0978924 -3.8986286 8.1390268
19.1951610 -3.9198388 8.1314496
19.2927559 -3.9403165 8.1285709
19.3895848 -3.9622975 8.1182725
19.4840367 -3.9912054 8.1041186
19.5781256 -4.0203761 8.0878940
19.6738476 -4.0481389 8.0819769
19.7691649 -4.0762558 8.0731843
19.8631396 -4.1054368 8.0573168
19.9547831 -4.1411983 8.0416203
20.0429668 -4.1748821 8.0094120
20.1297150 -4.2068243 7.9716904
20.2165149 -4.2388021 7.9341190
20.3050162 -4.2741021 7.9050828
20.3904823 -4.3185499 7.8788744
20.4761286 -4.3665979 7.8626169
20.5618783 -4.4167181 7.8524948
20.6482174 -4.4666229 7.8490443
20.7351442 -4.5155851 7.8502032
20.8244338 -4.5601690 7.8525150
20.9125575 -4.6063863 7.8443512
21.0011073 -4.6520916 7.8388138
21.0893787 -4.6981319 7.8312694
21.1761609 -4.7452311 7.8172799
21.2637403 -4.7914538 7.8045605
21.3495027 -4.8382313 7.7848539
21.4353247 -4.8852106 7.7651542
21.5214795 -4.9321459 7.7470986
21.6067977 -4.9786525 7.7242113
21.6929702 -5.0246257 7.7043141
21.7764827 -5.0695884 7.6731611
21.8411723 -5.1112214 7.6111565
21.8980238 -5.1512759 7.5407983
21.9363118 -5.1836706 7.4547241
21.9850895 -5.2188241 7.3750250
22.0343630 -5.2543590 7.2957931
22.0891715 -5.2919525 7.2221765
22.1557987 -5.3421590 7.1673262
22.2258322 -5.3942470 7.1190114
22.2986458 -5.4449484 7.0732290
22.3684741 -5.4947004 7.0221178
22.4369934 -5.5442351 6.9690333
22.5014695 -5.5926085 6.9101375
22.5583581 -5.6389854 6.8435358
22.6049060 -5.6859369 6.7687299
22.6554700 -5.7347650 6.6978809
22.7154038 -5.7847655 6.6361550
22.7720342 -5.8349144 6.5709943
22.8338774 -5.8846850 6.5117248
END_35